12.8299 13.3863 3.66887
12.8331 13.3897 3.65027
12.8363 13.393 3.63166
12.8395 13.3963 3.61304
12.8427 13.3997 3.59442
12.8459 13.403 3.5758
12.8491 13.4063 3.55716
12.8523 13.4097 3.53852
12.8555 13.413 3.51987
12.8587 13.4163 3.50122
12.8619 13.4197 3.48256
12.8651 13.423 3.46389
12.8683 13.4264 3.44521
12.8715 13.4297 3.42653
12.8747 13.4331 3.40784
12.8779 13.4364 3.38914
12.8811 13.4397 3.37044
12.8843 13.4431 3.35173
12.8802 13.4388 3.32101
12.8908 13.4498 3.31429
12.894 13.4531 3.29555
12.8972 13.4565 3.27682
12.9004 13.4599 3.25807
12.9036 13.4632 3.23932
12.9068 13.4666 3.22056
12.9101 13.4699 3.20179
12.906 13.4657 3.1708
12.9092 13.469 3.15199
12.9124 13.4724 3.13317
12.9157 13.4758 3.11435
12.9262 13.4867 3.10786
12.9294 13.4901 3.08905
12.9326 13.4935 3.07023
12.9359 13.4968 3.05141
12.9391 13.5002 3.03258
12.9423 13.5036 3.01375
12.9456 13.507 2.9949
12.956 13.5179 2.98855
12.952 13.5137 2.9572
12.9553 13.5171 2.93833
12.9512 13.5129 2.90685
12.9545 13.5163 2.88794
12.9577 13.5197 2.86903
12.961 13.5231 2.85011
12.9715 13.534 2.84391
12.9747 13.5374 2.825
12.978 13.5408 2.80609
12.9812 13.5441 2.78717
12.9844 13.5475 2.76824
12.9877 13.5509 2.74931
12.9909 13.5543 2.73036
12.9942 13.5577 2.71142
12.9974 13.5611 2.69246
13.0079 13.572 2.68645
13.004 13.5679 2.65453
13.0072 13.5713 2.63555
13.0105 13.5747 2.61657
13.0137 13.5781 2.59758
13.0098 13.574 2.56545
13.013 13.5774 2.54642
13.0163 13.5808 2.52738
13.0196 13.5842 2.50833
13.0228 13.5876 2.48927
13.0261 13.591 2.47021
13.0294 13.5944 2.45114
13.0327 13.5978 2.43206
13.0359 13.6013 2.41298
13.0392 13.6047 2.39389
13.0425 13.6081 2.37479
13.0458 13.6115 2.35569
13.0562 13.6224 2.35005
13.0523 13.6183 2.31745
13.0412 13.6068 2.27116
13.0445 13.6102 2.25197
13.0261 13.591 2.19155
13.0294 13.5945 2.17226
13.0327 13.5979 2.15296
13.036 13.6013 2.13365
13.0248 13.5896 2.08643
13.0281 13.5931 2.06705
13.0459 13.6117 2.07568
13.0492 13.6151 2.05634
13.0525 13.6186 2.037
13.0559 13.622 2.01764
13.0664 13.633 2.01236
13.0697 13.6365 1.99302
13.073 13.6399 1.97367
13.0763 13.6434 1.95432
13.0507 13.6167 1.87797
13.0613 13.6277 1.87282
13.0718 13.6387 1.86768
13.0824 13.6497 1.86256
13.0857 13.6532 1.84314
13.1034 13.6716 1.85235
13.1209 13.69 1.86151
13.1243 13.6934 1.84219
13.1347 13.7043 1.83712
13.145 13.7151 1.83207
13.1624 13.7332 1.84124
13.1727 13.744 1.83621
13.183 13.7547 1.83118
13.1863 13.7582 1.81199
13.2105 13.7834 1.8353
13.2275 13.8012 1.84438
13.2032 13.7758 1.76864
13.2134 13.7864 1.76371
13.2442 13.8186 1.80128
13.2544 13.8292 1.79634
13.2645 13.8397 1.79141
13.2677 13.8431 1.77239
13.2778 13.8536 1.76749
13.2811 13.857 1.74849
13.264 13.8392 1.68682
13.2741 13.8497 1.682
13.2842 13.8603 1.6772
13.2875 13.8637 1.65814
13.3043 13.8812 1.66763
13.3076 13.8847 1.64862
13.3243 13.9021 1.65811
13.3275 13.9055 1.63914
13.3174 13.895 1.59153
13.3274 13.9054 1.58684
13.3374 13.9158 1.58217
13.3407 13.9192 1.56317
13.3573 13.9366 1.57286
13.3606 13.94 1.55391
13.3705 13.9503 1.54929
13.3738 13.9537 1.53035
13.3571 13.9364 1.46806
13.3737 13.9537 1.478
13.3902 13.9709 1.48789
13.4001 13.9812 1.48336
13.4229 14.0051 1.50753
13.4262 14.0085 1.48868
13.436 14.0187 1.48417
13.4393 14.0221 1.46534
13.4099 13.9915 1.37413
13.4132 13.9949 1.35514
13.4426 14.0256 1.39435
13.4524 14.0357 1.38995
13.4814 14.066 1.42873
13.491 14.0761 1.42432
13.4943 14.0795 1.40558
13.5102 14.0961 1.41551
13.5198 14.1061 1.41113
13.5419 14.1292 1.43524
13.5577 14.1456 1.44503
13.5671 14.1555 1.44064
13.5827 14.1718 1.45039
13.586 14.1752 1.4319
13.6076 14.1977 1.4557
13.6109 14.2011 1.43728
13.6202 14.2108 1.43293
13.6234 14.2142 1.41453
13.6448 14.2366 1.43829
13.6481 14.2399 1.41995
13.6812 14.2745 1.47142
13.6904 14.2841 1.46708
13.7054 14.2998 1.47659
13.7204 14.3154 1.48605
13.7294 14.3248 1.48172
13.7326 14.3282 1.46363
13.7417 14.3376 1.45933
13.7449 14.3409 1.44125
13.7597 14.3564 1.45075
13.7629 14.3597 1.43272
13.7776 14.3751 1.44222
13.775 14.3724 1.41044
13.784 14.3817 1.40621
13.7872 14.3851 1.3882
13.7961 14.3944 1.384
13.7935 14.3917 1.35216
13.8025 14.401 1.348
13.8057 14.4044 1.32999
13.8145 14.4136 1.32586
13.812 14.411 1.29394
13.8152 14.4143 1.27591
13.8184 14.4177 1.25787
13.8216 14.421 1.23983
13.8248 14.4244 1.22178
13.828 14.4277 1.20372
13.8255 14.4251 1.17156
13.8344 14.4344 1.16759
13.8376 14.4377 1.14952
14.0724 14.6827 1.70857
14.0755 14.6859 1.69152
14.0786 14.6891 1.67447
14.0867 14.6976 1.67019
14.0898 14.7008 1.65315
14.2811 14.9004 0.634607
14.2842 14.9037 0.617243
14.2922 14.912 0.614047
14.2953 14.9153 0.596695
14.2985 14.9186 0.579337
14.3016 14.9218 0.561973
14.3047 14.9251 0.544604
14.3079 14.9284 0.527229
14.311 14.9316 0.509848
14.3142 14.9349 0.492461
14.3173 14.9382 0.475068
14.3253 14.9465 0.472022
14.3284 14.9498 0.454641
14.3316 14.9531 0.437255
14.3347 14.9564 0.419863
14.3427 14.9647 0.416877
14.3458 14.9679 0.399497
14.3537 14.9762 0.396535
14.3569 14.9795 0.379167
14.36 14.9828 0.361793
14.3679 14.991 0.358874
14.3711 14.9943 0.341512
14.3742 14.9976 0.324145
14.3821 15.0058 0.321267
14.3853 15.0091 0.303912
14.3884 15.0124 0.286551
14.3915 15.0157 0.269184
14.3947 15.0189 0.251811
14.4026 15.0272 0.249011
14.4057 15.0304 0.23165
14.4136 15.0386 0.228874
14.4214 15.0468 0.226104
14.4245 15.0501 0.208773
14.4277 15.0534 0.191437
14.4355 15.0615 0.188708
14.4386 15.0648 0.171384
14.4418 15.0681 0.154054
14.4449 15.0713 0.136718
14.4527 15.0795 0.134048
14.4559 15.0828 0.116725
14.459 15.086 0.0993951
14.4621 15.0893 0.0820599
14.4653 15.0926 0.0647188
11.1778 12.7002 9.1064
11.197 12.722 9.09732
11.1997 12.7252 9.08027
11.2025 12.7283 9.06321
11.1888 12.7128 9.038
11.1916 12.7159 9.02089
11.1861 12.7097 8.99963
11.2217 12.7502 8.99905
11.2489 12.781 8.99438
11.2597 12.7933 8.98151
11.2706 12.8056 8.96867
11.2813 12.8179 8.95585
11.3001 12.8392 8.94723
11.2949 12.8333 8.92614
11.2896 12.8273 8.90499
11.2924 12.8305 8.88802
11.335 12.8788 8.89223
11.3377 12.882 8.87536
11.3246 12.8671 8.84996
11.3274 12.8702 8.83303
11.3381 12.8824 8.82042
11.3408 12.8855 8.80351
11.3673 12.9155 8.79961
11.37 12.9187 8.78275
11.3728 12.9218 8.76589
11.3755 12.9249 8.74902
11.3704 12.9191 8.72773
11.3732 12.9222 8.71082
11.3838 12.9343 8.69838
11.3866 12.9374 8.68149
11.3893 12.9406 8.66459
11.3921 12.9437 8.64768
11.4027 12.9558 8.63532
11.4054 12.9589 8.61842
11.4004 12.9531 8.59693
11.411 12.9652 8.58462
11.4137 12.9683 8.56771
11.4165 12.9714 8.55079
11.4192 12.9746 8.53387
11.422 12.9777 8.51694
11.4248 12.9809 8.5
11.4276 12.984 8.48306
11.4225 12.9783 8.46134
11.4253 12.9815 8.44437
11.4281 12.9846 8.42738
11.4308 12.9878 8.4104
11.4336 12.9909 8.3934
11.4442 13.0029 8.38129
11.447 13.0061 8.3643
11.4497 13.0092 8.34731
11.4525 13.0124 8.33032
11.4553 13.0155 8.31332
11.4658 13.0275 8.3013
11.4764 13.0395 8.28931
11.4714 13.0338 8.26731
11.4742 13.037 8.25031
11.477 13.0402 8.2333
11.4797 13.0433 8.21629
11.4825 13.0465 8.19927
11.493 13.0584 8.18737
11.4881 13.0528 8.16521
11.4909 13.056 8.14817
11.4937 13.0591 8.13112
11.4965 13.0623 8.11407
11.4992 13.0655 8.09702
11.502 13.0687 8.07995
11.5048 13.0718 8.06288
11.5153 13.0838 8.05113
11.5181 13.0869 8.03407
11.5209 13.0901 8.01701
11.516 13.0845 7.99455
11.5188 13.0877 7.97745
11.5216 13.0909 7.96034
11.5244 13.0941 7.94323
11.5272 13.0972 7.92612
11.53 13.1004 7.90899
11.5328 13.1036 7.89186
11.5356 13.1068 7.87473
11.5384 13.11 7.85759
11.5412 13.1132 7.84044
11.5517 13.1251 7.82891
11.5545 13.1283 7.81177
11.5573 13.1314 7.79463
11.5601 13.1346 7.77748
11.5629 13.1378 7.76032
11.5657 13.141 7.74316
11.5685 13.1442 7.726
11.5713 13.1474 7.70882
11.5741 13.1506 7.69164
11.577 13.1538 7.67446
11.5721 13.1483 7.65141
11.5749 13.1515 7.63419
11.5854 13.1634 7.62286
11.5882 13.1666 7.60565
11.591 13.1698 7.58844
11.5939 13.173 7.57122
11.5967 13.1762 7.55399
11.5995 13.1794 7.53675
11.5947 13.1739 7.51347
11.6051 13.1858 7.50227
11.608 13.189 7.48501
11.6108 13.1922 7.46775
11.6136 13.1954 7.45049
11.6164 13.1986 7.43322
11.6193 13.2018 7.41594
11.6221 13.2051 7.39866
11.6249 13.2083 7.38137
11.6277 13.2115 7.36407
11.6306 13.2147 7.34677
11.6334 13.2179 7.32946
11.6438 13.2298 7.31846
11.6467 13.233 7.30116
11.6495 13.2362 7.28386
11.6523 13.2394 7.26655
11.6627 13.2512 7.25563
11.6656 13.2545 7.23833
11.6684 13.2577 7.22103
11.6712 13.2609 7.20372
11.6741 13.2641 7.1864
11.6769 13.2673 7.16908
11.6797 13.2706 7.15175
11.6826 13.2738 7.13442
11.6779 13.2685 7.11049
11.6807 13.2717 7.09312
11.6836 13.2749 7.07574
11.6864 13.2781 7.05836
11.6817 13.2728 7.03427
11.6846 13.276 7.01685
11.6874 13.2793 6.99942
11.6903 13.2825 6.98199
11.6931 13.2858 6.96455
11.696 13.289 6.94711
11.6988 13.2923 6.92966
11.7017 13.2955 6.9122
11.7045 13.2987 6.89474
11.7074 13.302 6.87727
11.7103 13.3052 6.85979
11.7131 13.3085 6.84231
11.7235 13.3203 6.83181
11.7264 13.3235 6.81433
11.7292 13.3268 6.79686
11.7321 13.33 6.77937
11.735 13.3333 6.76188
11.7378 13.3366 6.74439
11.7407 13.3398 6.72689
11.7435 13.3431 6.70938
11.7464 13.3463 6.69186
11.7493 13.3496 6.67434
11.7522 13.3528 6.65681
11.755 13.3561 6.63928
11.7579 13.3594 6.62174
11.7608 13.3626 6.60419
11.7636 13.3659 6.58664
11.7665 13.3692 6.56908
11.7694 13.3724 6.55152
11.7723 13.3757 6.53395
11.7677 13.3705 6.50894
11.7706 13.3737 6.49133
11.7659 13.3685 6.46622
11.7688 13.3718 6.44857
11.7792 13.3836 6.43847
11.7821 13.3869 6.42083
11.785 13.3901 6.40319
11.7879 13.3934 6.38555
11.7907 13.3967 6.36789
11.7936 13.4 6.35023
11.804 13.4117 6.34024
11.8069 13.415 6.32259
11.8098 13.4183 6.30494
11.8127 13.4216 6.28728
11.8155 13.4249 6.26961
11.8184 13.4282 6.25194
11.8213 13.4314 6.23426
11.8242 13.4347 6.21658
11.8271 13.438 6.19888
11.83 13.4413 6.18118
11.8329 13.4446 6.16348
11.8358 13.4479 6.14577
11.8313 13.4428 6.12008
11.8342 13.4461 6.10233
11.8371 13.4494 6.08457
11.8474 13.4611 6.07486
11.8429 13.456 6.04904
11.8458 13.4593 6.03127
11.8487 13.4626 6.01349
11.8591 13.4743 6.00385
11.862 13.4776 5.98608
11.8649 13.4809 5.9683
11.8678 13.4842 5.95052
11.8707 13.4875 5.93273
11.8736 13.4908 5.91494
11.8765 13.4942 5.89714
11.8794 13.4975 5.87933
11.875 13.4924 5.85317
11.8779 13.4957 5.83532
11.8882 13.5074 5.82587
11.8911 13.5107 5.80803
11.894 13.514 5.79019
11.8896 13.509 5.76387
11.8999 13.5207 5.7545
11.9101 13.5324 5.74514
11.9131 13.5357 5.7273
11.916 13.539 5.70945
11.9189 13.5423 5.6916
11.9218 13.5456 5.67374
11.9174 13.5406 5.64724
11.9204 13.544 5.62934
11.9306 13.5556 5.62012
11.9336 13.559 5.60224
11.9365 13.5623 5.58434
11.9321 13.5573 5.55769
11.935 13.5606 5.53976
11.938 13.564 5.52182
11.9409 13.5673 5.50388
11.9438 13.5706 5.48593
11.9468 13.574 5.46797
11.9424 13.569 5.44107
11.9453 13.5723 5.42308
11.9556 13.584 5.41406
11.9586 13.5874 5.39608
11.9615 13.5907 5.37809
11.9644 13.5941 5.36009
11.9747 13.6057 5.35115
11.9776 13.609 5.33317
11.9733 13.6041 5.30606
11.9762 13.6075 5.28804
11.9792 13.6108 5.27001
11.9821 13.6142 5.25198
11.9851 13.6175 5.23394
11.9953 13.6291 5.22513
11.9983 13.6325 5.2071
12.0012 13.6358 5.18907
12.0042 13.6392 5.17102
12.0071 13.6426 5.15298
12.0101 13.6459 5.13492
12.0131 13.6493 5.11686
12.0088 13.6444 5.08936
12.0117 13.6478 5.07126
12.0147 13.6511 5.05316
12.0177 13.6545 5.03504
12.0206 13.6579 5.01692
12.0236 13.6613 4.99879
12.0266 13.6646 4.98066
12.0295 13.668 4.96252
12.0397 13.6796 4.954
12.0427 13.683 4.93588
12.0457 13.6863 4.91774
12.0487 13.6897 4.8996
12.0516 13.6931 4.88145
12.0546 13.6965 4.8633
12.0576 13.6999 4.84514
12.0605 13.7032 4.82697
12.0635 13.7066 4.80879
12.0593 13.7018 4.78074
12.0695 13.7134 4.77243
12.0725 13.7168 4.75423
12.0754 13.7202 4.73603
12.0784 13.7236 4.71782
12.0814 13.7269 4.69961
12.0844 13.7303 4.68139
12.0946 13.7419 4.67319
12.0975 13.7453 4.65498
12.1005 13.7487 4.63676
12.1035 13.7521 4.61854
12.1065 13.7554 4.60031
12.1095 13.7588 4.58208
12.1125 13.7622 4.56384
12.1155 13.7656 4.54559
12.1113 13.7609 4.5171
12.1143 13.7643 4.49881
12.1173 13.7677 4.48052
12.1203 13.7711 4.46222
12.1233 13.7745 4.44391
12.1263 13.7779 4.42559
12.1293 13.7814 4.40727
12.1323 13.7848 4.38894
12.1282 13.7801 4.36013
12.1383 13.7916 4.35227
12.1342 13.7869 4.32339
12.1443 13.7984 4.31556
12.1473 13.8018 4.2972
12.1503 13.8053 4.27883
12.1533 13.8087 4.26046
12.1564 13.8121 4.24208
12.1594 13.8155 4.22369
12.1624 13.8189 4.20529
12.1654 13.8224 4.18689
12.1684 13.8258 4.16848
12.1714 13.8292 4.15006
12.1744 13.8327 4.13164
12.1775 13.8361 4.11321
12.1805 13.8395 4.09478
12.1835 13.8429 4.07633
12.1865 13.8464 4.05788
12.1896 13.8498 4.03943
12.1926 13.8533 4.02096
12.1956 13.8567 4.00249
12.1986 13.8601 3.98402
12.2087 13.8716 3.97657
12.2117 13.875 3.95811
12.2148 13.8785 3.93964
12.2178 13.8819 3.92116
12.2138 13.8773 3.89153
12.2168 13.8808 3.87301
12.2198 13.8842 3.85449
12.2229 13.8877 3.83596
12.2259 13.8911 3.81742
12.229 13.8946 3.79887
12.232 13.898 3.78032
12.235 13.9015 3.76176
12.2451 13.9129 3.75456
12.2481 13.9164 3.73602
12.2442 13.9119 3.70604
12.2472 13.9153 3.68746
12.2503 13.9188 3.66887
12.2533 13.9222 3.65027
12.2563 13.9257 3.63166
12.2594 13.9292 3.61304
12.2624 13.9326 3.59442
12.2655 13.9361 3.5758
12.2685 13.9396 3.55716
12.2716 13.943 3.53852
12.2747 13.9465 3.51987
12.2777 13.95 3.50122
12.2808 13.9535 3.48256
12.2838 13.9569 3.46389
12.2869 13.9604 3.44521
12.2899 13.9639 3.42653
12.293 13.9674 3.40784
12.2961 13.9708 3.38914
12.2991 13.9743 3.37044
12.3022 13.9778 3.35173
12.2983 13.9733 3.32101
12.3083 13.9848 3.31429
12.3114 13.9883 3.29555
12.3145 13.9917 3.27682
12.3175 13.9952 3.25807
12.3206 13.9987 3.23932
12.3237 14.0022 3.22056
12.3268 14.0057 3.20179
12.3298 14.0092 3.18302
12.3329 14.0127 3.16424
12.336 14.0162 3.14545
12.3391 14.0197 3.12666
12.3421 14.0232 3.10786
12.3452 14.0267 3.08905
12.3552 14.0381 3.08259
12.3514 14.0337 3.05141
12.3545 14.0372 3.03258
12.3576 14.0407 3.01375
12.3606 14.0442 2.9949
12.3637 14.0477 2.97605
12.3668 14.0512 2.9572
12.3699 14.0547 2.93833
12.3661 14.0504 2.90685
12.3692 14.0539 2.88794
12.3723 14.0574 2.86903
12.3754 14.0609 2.85011
12.3785 14.0645 2.83118
12.3816 14.068 2.81224
12.3847 14.0715 2.7933
12.3878 14.075 2.77435
12.3978 14.0864 2.76824
12.4009 14.0899 2.74931
12.404 14.0934 2.73036
12.4071 14.097 2.71142
12.4102 14.1005 2.69246
12.4202 14.1118 2.68645
12.4233 14.1154 2.66751
12.4195 14.1111 2.63555
12.4226 14.1146 2.61657
12.4257 14.1182 2.59758
12.4288 14.1217 2.57858
12.432 14.1252 2.55957
12.4351 14.1288 2.54056
12.4382 14.1323 2.52154
12.4344 14.1281 2.48927
12.4376 14.1316 2.47021
12.4338 14.1273 2.43781
12.4369 14.1309 2.4187
12.4401 14.1345 2.39959
12.4432 14.138 2.38047
12.4532 14.1494 2.37479
12.4563 14.1529 2.35569
12.4594 14.1565 2.33657
12.4557 14.1522 2.30392
12.452 14.148 2.27116
12.4551 14.1516 2.25197
12.4376 14.1316 2.19155
12.4407 14.1352 2.17226
12.4439 14.1388 2.15296
12.447 14.1424 2.13365
12.4363 14.1302 2.08643
12.4395 14.1338 2.06705
12.4565 14.1531 2.07568
12.4596 14.1567 2.05634
12.4628 14.1603 2.037
12.466 14.1639 2.01764
12.476 14.1753 2.01236
12.4792 14.1789 1.99302
12.4823 14.1825 1.97367
12.4855 14.1861 1.95432
12.461 14.1583 1.87797
12.4711 14.1698 1.87282
12.4812 14.1812 1.86768
12.4913 14.1926 1.86256
12.5013 14.204 1.85745
12.5113 14.2154 1.85235
12.5281 14.2345 1.86151
12.538 14.2458 1.85642
12.5412 14.2494 1.83712
12.5511 14.2606 1.83207
12.5677 14.2795 1.84124
12.5776 14.2907 1.83621
12.594 14.3094 1.84533
12.5972 14.313 1.82617
12.6398 14.3614 1.89143
12.643 14.365 1.87242
12.6199 14.3387 1.79705
12.6296 14.3498 1.7921
12.6393 14.3608 1.78715
12.649 14.3718 1.78222
12.6521 14.3754 1.76315
12.6553 14.379 1.74408
12.6714 14.3973 1.75337
12.681 14.4082 1.74849
12.6777 14.4044 1.7153
12.6873 14.4153 1.71047
12.684 14.4116 1.6772
12.6871 14.4151 1.65814
12.7096 14.4407 1.68185
12.7127 14.4442 1.66287
12.7222 14.4551 1.65811
12.7254 14.4586 1.63914
12.7221 14.4549 1.60586
12.7317 14.4658 1.60117
12.7348 14.4693 1.58217
12.7379 14.4729 1.56317
12.7601 14.4981 1.58716
12.7632 14.5016 1.56823
12.7664 14.5052 1.54929
12.7695 14.5088 1.53035
12.7663 14.5051 1.49699
12.7695 14.5087 1.478
12.7789 14.5195 1.47347
12.7883 14.5302 1.46895
12.804 14.548 1.47884
12.8196 14.5657 1.48868
12.8289 14.5763 1.48417
12.832 14.5798 1.46534
12.829 14.5763 1.43211
12.8321 14.5799 1.41323
12.8599 14.6114 1.45194
12.863 14.615 1.43316
12.8965 14.6531 1.48577
12.9057 14.6635 1.48131
12.9088 14.667 1.46268
12.9179 14.6773 1.45826
12.9029 14.6604 1.39682
12.9181 14.6776 1.40675
12.9332 14.6947 1.41664
12.9482 14.7118 1.42648
12.969 14.7355 1.45039
12.9839 14.7523 1.46008
12.9986 14.7691 1.46973
13.0017 14.7726 1.45133
13.0048 14.7761 1.43293
13.0079 14.7796 1.41453
13.0283 14.8028 1.43829
13.0314 14.8063 1.41995
13.0631 14.8423 1.47142
13.0718 14.8523 1.46708
13.0749 14.8557 1.44888
13.1005 14.8848 1.48605
13.1035 14.8883 1.46794
13.1122 14.8981 1.46363
13.1208 14.9079 1.45933
13.1238 14.9114 1.44125
13.1269 14.9148 1.42317
13.1299 14.9183 1.40508
13.1496 14.9406 1.42846
13.1471 14.9378 1.39662
13.1502 14.9413 1.37856
13.1532 14.9447 1.3605
13.1563 14.9482 1.34243
13.1593 14.9517 1.32435
13.1624 14.9551 1.30627
13.1709 14.9649 1.30215
13.1795 14.9746 1.29804
13.177 14.9718 1.266
13.1856 14.9815 1.26193
13.1886 14.985 1.24387
13.1971 14.9946 1.23983
13.2002 14.9981 1.22178
13.2032 15.0016 1.20372
13.2008 14.9989 1.17156
13.2093 15.0085 1.16759
13.207 15.0058 1.13536
13.4366 15.2667 1.70857
13.4395 15.27 1.69152
13.4425 15.2734 1.67447
13.4503 15.2822 1.67019
13.4532 15.2856 1.65315
13.6358 15.4931 0.634607
13.6435 15.5018 0.631393
13.6465 15.5052 0.614047
13.6494 15.5086 0.596695
13.6524 15.512 0.579337
13.6554 15.5154 0.561973
13.6584 15.5188 0.544604
13.6614 15.5222 0.527229
13.6644 15.5256 0.509848
13.6674 15.529 0.492461
13.6704 15.5324 0.475068
13.6734 15.5358 0.45767
13.681 15.5444 0.454641
13.684 15.5479 0.437255
13.687 15.5513 0.419863
13.6946 15.5599 0.416877
13.6976 15.5633 0.399497
13.7052 15.5719 0.396535
13.7082 15.5753 0.379167
13.7112 15.5787 0.361793
13.7188 15.5873 0.358874
13.7218 15.5907 0.341512
13.7248 15.5941 0.324145
13.7323 15.6027 0.321267
13.7353 15.6061 0.303912
13.7383 15.6095 0.286551
13.7413 15.6129 0.269184
13.7443 15.6163 0.251811
13.7518 15.6249 0.249011
13.7548 15.6283 0.23165
13.7578 15.6317 0.214284
13.7653 15.6402 0.211526
13.7728 15.6487 0.208773
13.7758 15.6521 0.191437
13.7833 15.6606 0.188708
13.7863 15.664 0.171384
13.7893 15.6674 0.154054
13.7923 15.6708 0.136718
13.7997 15.6793 0.134048
13.8027 15.6827 0.116725
13.8057 15.6861 0.0993951
13.8043 15.6845 0.0673169
13.8073 15.6879 0.0499521
13.8815 15.7722 -1.47552
13.8846 15.7758 -1.49392
13.8878 15.7793 -1.51233
10.6521 13.1922 9.11833
10.6547 13.1954 9.10131
10.6496 13.189 9.08027
10.6522 13.1923 9.06321
10.6392 13.1762 9.038
10.634 13.1697 9.01677
10.6366 13.173 8.99963
10.6705 13.2149 8.99905
10.6963 13.2469 8.99438
10.7066 13.2597 8.98151
10.7246 13.2819 8.9728
10.7348 13.2946 8.96
10.7526 13.3166 8.95137
10.7476 13.3105 8.93032
10.7503 13.3137 8.9134
10.7529 13.317 8.89648
10.7857 13.3576 8.89643
10.7958 13.3701 8.8838
10.7683 13.3361 8.84996
10.7785 13.3487 8.83733
10.7811 13.3519 8.82042
10.7837 13.3552 8.80351
10.8014 13.3771 8.79528
10.804 13.3803 8.7784
10.8141 13.3928 8.76589
10.8167 13.3961 8.74902
10.8119 13.39 8.72773
10.8145 13.3933 8.71082
10.8246 13.4058 8.69838
10.8272 13.409 8.68149
10.8373 13.4215 8.66909
10.8399 13.4248 8.6522
10.8351 13.4188 8.63077
10.8377 13.4221 8.61386
10.8404 13.4253 8.59693
10.8504 13.4378 8.58462
10.853 13.441 8.56771
10.8557 13.4443 8.55079
10.8583 13.4475 8.53387
10.8609 13.4508 8.51694
10.8636 13.4541 8.5
10.8662 13.4573 8.48306
10.8614 13.4514 8.46134
10.8641 13.4547 8.44437
10.8667 13.4579 8.42738
10.8693 13.4612 8.4104
10.8794 13.4736 8.39826
10.882 13.4769 8.38129
10.8847 13.4802 8.3643
10.8873 13.4835 8.34731
10.8899 13.4867 8.33032
10.8926 13.49 8.31332
10.9026 13.5024 8.3013
10.9126 13.5148 8.28931
10.9079 13.509 8.26731
10.9105 13.5122 8.25031
10.9132 13.5155 8.2333
10.9232 13.5279 8.22138
10.9185 13.5221 8.19927
10.9211 13.5253 8.18224
10.9238 13.5286 8.16521
10.9264 13.5319 8.14817
10.9291 13.5352 8.13112
10.9317 13.5385 8.11407
10.927 13.5326 8.09175
10.937 13.545 8.07995
10.9397 13.5483 8.06288
10.9423 13.5516 8.04581
10.9523 13.564 8.03407
10.955 13.5673 8.01701
10.9503 13.5615 7.99455
10.953 13.5648 7.97745
10.9556 13.5681 7.96034
10.9583 13.5714 7.94323
10.9609 13.5747 7.92612
10.9636 13.578 7.90899
10.9663 13.5813 7.89186
10.9689 13.5846 7.87473
10.9716 13.5879 7.85759
10.9743 13.5912 7.84044
10.9842 13.6035 7.82891
10.9869 13.6068 7.81177
10.9896 13.6101 7.79463
10.9922 13.6134 7.77748
10.9949 13.6167 7.76032
10.9976 13.62 7.74316
11.0003 13.6233 7.726
11.0029 13.6266 7.70882
11.0056 13.63 7.69164
11.0083 13.6333 7.67446
11.0037 13.6276 7.65141
11.0063 13.6309 7.63419
11.0163 13.6432 7.62286
11.019 13.6465 7.60565
11.0217 13.6498 7.58844
11.0171 13.6442 7.56524
11.0197 13.6475 7.54799
11.0224 13.6508 7.53073
11.0251 13.6541 7.51347
11.0278 13.6575 7.4962
11.0305 13.6608 7.47892
11.0332 13.6641 7.46164
11.0431 13.6764 7.45049
11.0458 13.6798 7.43322
11.0485 13.6831 7.41594
11.0439 13.6774 7.39244
11.0466 13.6808 7.37513
11.0493 13.6841 7.35781
11.052 13.6874 7.34049
11.0547 13.6908 7.32315
11.0646 13.7031 7.31215
11.0673 13.7064 7.29483
11.0772 13.7187 7.28386
11.0799 13.722 7.26655
11.0898 13.7343 7.25563
11.0925 13.7376 7.23833
11.088 13.732 7.21459
11.0907 13.7354 7.19725
11.0934 13.7387 7.17991
11.0961 13.7421 7.16257
11.0988 13.7454 7.14521
11.1015 13.7488 7.12786
11.097 13.7432 7.10389
11.0998 13.7466 7.08649
11.1025 13.7499 7.06909
11.1052 13.7533 7.05168
11.1079 13.7566 7.03427
11.1106 13.76 7.01685
11.1133 13.7633 6.99942
11.116 13.7667 6.98199
11.1187 13.7701 6.96455
11.1214 13.7734 6.94711
11.1242 13.7768 6.92966
11.1269 13.7801 6.9122
11.1296 13.7835 6.89474
11.1323 13.7869 6.87727
11.135 13.7902 6.85979
11.1377 13.7936 6.84231
11.1405 13.797 6.82482
11.1432 13.8004 6.80732
11.1531 13.8126 6.79686
11.1558 13.816 6.77937
11.1585 13.8193 6.76188
11.1612 13.8227 6.74439
11.164 13.8261 6.72689
11.1667 13.8294 6.70938
11.1694 13.8328 6.69186
11.1721 13.8362 6.67434
11.1749 13.8396 6.65681
11.1776 13.843 6.63928
11.1803 13.8463 6.62174
11.1831 13.8497 6.60419
11.1858 13.8531 6.58664
11.1814 13.8477 6.56173
11.1841 13.8511 6.54414
11.1869 13.8545 6.52654
11.1896 13.8579 6.50894
11.1924 13.8612 6.49133
11.188 13.8558 6.46622
11.1907 13.8592 6.44857
11.1935 13.8626 6.43092
11.1962 13.866 6.41326
11.1989 13.8694 6.3956
11.2017 13.8728 6.37793
11.2116 13.885 6.36789
11.2143 13.8884 6.35023
11.2241 13.9006 6.34024
11.2269 13.904 6.32259
11.2296 13.9074 6.30494
11.2324 13.9108 6.28728
11.2351 13.9142 6.26961
11.2379 13.9176 6.25194
11.2406 13.921 6.23426
11.2434 13.9245 6.21658
11.2461 13.9279 6.19888
11.2489 13.9313 6.18118
11.2517 13.9347 6.16348
11.2544 13.9381 6.14577
11.2501 13.9328 6.12008
11.2529 13.9362 6.10233
11.2627 13.9484 6.0926
11.2655 13.9518 6.07486
11.2682 13.9552 6.05712
11.271 13.9586 6.03937
11.2808 13.9707 6.02971
11.2835 13.9742 6.01197
11.2793 13.9689 5.98608
11.282 13.9723 5.9683
11.2848 13.9758 5.95052
11.2876 13.9792 5.93273
11.2903 13.9826 5.91494
11.2931 13.986 5.89714
11.2959 13.9895 5.87933
11.2916 13.9842 5.85317
11.3014 13.9963 5.84369
11.3042 13.9998 5.82587
11.307 14.0032 5.80803
11.3098 14.0067 5.79019
11.3055 14.0014 5.76387
11.3083 14.0049 5.74599
11.3251 14.0256 5.74514
11.3279 14.0291 5.7273
11.3307 14.0325 5.70945
11.3334 14.036 5.6916
11.3362 14.0394 5.67374
11.339 14.0429 5.65587
11.3418 14.0463 5.638
11.3446 14.0498 5.62012
11.3474 14.0532 5.60224
11.3501 14.0567 5.58434
11.3529 14.0601 5.56644
11.3557 14.0636 5.54854
11.3585 14.067 5.53063
11.3613 14.0705 5.51271
11.3641 14.0739 5.49478
11.3669 14.0774 5.47685
11.3627 14.0722 5.45001
11.3655 14.0757 5.43204
11.3683 14.0792 5.41406
11.3711 14.0826 5.39608
11.3739 14.0861 5.37809
11.3767 14.0896 5.36009
11.3795 14.0931 5.34209
11.3823 14.0965 5.32408
11.3921 14.1086 5.31518
11.3949 14.1121 5.29718
11.3977 14.1155 5.27918
11.3936 14.1104 5.25198
11.4033 14.1225 5.24315
11.4061 14.1259 5.22513
11.4089 14.1294 5.2071
11.4117 14.1329 5.18907
11.4145 14.1364 5.17102
11.4173 14.1399 5.15298
11.4132 14.1348 5.12555
11.4161 14.1383 5.10746
11.4189 14.1418 5.08936
11.4217 14.1453 5.07126
11.4245 14.1488 5.05316
11.4273 14.1523 5.03504
11.4301 14.1557 5.01692
11.433 14.1592 4.99879
11.4358 14.1627 4.98066
11.4386 14.1662 4.96252
11.4483 14.1782 4.954
11.4511 14.1817 4.93588
11.454 14.1852 4.91774
11.4568 14.1887 4.8996
11.4596 14.1922 4.88145
11.4624 14.1957 4.8633
11.4584 14.1908 4.83535
11.4612 14.1943 4.81715
11.4641 14.1978 4.79895
11.4669 14.2013 4.78074
11.4766 14.2133 4.77243
11.4794 14.2168 4.75423
11.4823 14.2203 4.73603
11.4851 14.2238 4.71782
11.4948 14.2358 4.70958
11.4976 14.2393 4.69139
11.5072 14.2512 4.68318
11.5101 14.2547 4.665
11.5061 14.2498 4.63676
11.509 14.2533 4.61854
11.5118 14.2569 4.60031
11.5146 14.2604 4.58208
11.5175 14.2639 4.56384
11.5203 14.2674 4.54559
11.5232 14.2709 4.52734
11.5192 14.2661 4.49881
11.5221 14.2696 4.48052
11.5249 14.2731 4.46222
11.5278 14.2766 4.44391
11.5306 14.2802 4.42559
11.5403 14.2921 4.41767
11.5431 14.2956 4.39937
11.5392 14.2908 4.37061
11.542 14.2943 4.35227
11.5381 14.2895 4.32339
11.541 14.293 4.30501
11.5506 14.3049 4.2972
11.5535 14.3085 4.27883
11.5563 14.312 4.26046
11.5592 14.3156 4.24208
11.5621 14.3191 4.22369
11.5649 14.3227 4.20529
11.5678 14.3262 4.18689
11.5707 14.3298 4.16848
11.5735 14.3333 4.15006
11.5764 14.3369 4.13164
11.5793 14.3404 4.11321
11.5821 14.344 4.09478
11.5783 14.3392 4.06543
11.5879 14.3511 4.05788
11.5908 14.3547 4.03943
11.5936 14.3582 4.02096
11.5965 14.3618 4.00249
11.5994 14.3654 3.98402
11.609 14.3772 3.97657
11.6119 14.3808 3.95811
11.6148 14.3844 3.93964
11.6176 14.3879 3.92116
11.6138 14.3832 3.89153
11.6167 14.3868 3.87301
11.6129 14.382 3.84326
11.6225 14.3939 3.83596
11.6253 14.3975 3.81742
11.6282 14.4011 3.79887
11.6311 14.4047 3.78032
11.634 14.4082 3.76176
11.6436 14.4201 3.75456
11.6465 14.4237 3.73602
11.6427 14.419 3.70604
11.6456 14.4226 3.68746
11.6485 14.4262 3.66887
11.6514 14.4297 3.65027
11.6543 14.4333 3.63166
11.6572 14.4369 3.61304
11.6601 14.4405 3.59442
11.663 14.4441 3.5758
11.6659 14.4477 3.55716
11.6688 14.4513 3.53852
11.6717 14.4549 3.51987
11.6746 14.4585 3.50122
11.6775 14.4621 3.48256
11.6804 14.4657 3.46389
11.6833 14.4693 3.44521
11.6862 14.4729 3.42653
11.6891 14.4765 3.40784
11.6921 14.4801 3.38914
11.695 14.4837 3.37044
11.6979 14.4873 3.35173
11.6942 14.4827 3.32101
11.7037 14.4945 3.31429
11.7066 14.4982 3.29555
11.7096 14.5018 3.27682
11.7125 14.5054 3.25807
11.7154 14.509 3.23932
11.7183 14.5126 3.22056
11.7212 14.5162 3.20179
11.7242 14.5199 3.18302
11.7271 14.5235 3.16424
11.73 14.5271 3.14545
11.7329 14.5307 3.12666
11.7359 14.5344 3.10786
11.7388 14.538 3.08905
11.7483 14.5498 3.08259
11.7447 14.5453 3.05141
11.7476 14.5489 3.03258
11.7505 14.5525 3.01375
11.7535 14.5562 2.9949
11.7564 14.5598 2.97605
11.7593 14.5634 2.9572
11.7623 14.5671 2.93833
11.7586 14.5626 2.90685
11.7616 14.5662 2.88794
11.7645 14.5698 2.86903
11.7675 14.5735 2.85011
11.7704 14.5771 2.83118
11.7734 14.5808 2.81224
11.7763 14.5844 2.7933
11.7793 14.5881 2.77435
11.7888 14.5999 2.76824
11.7917 14.6035 2.74931
11.7947 14.6072 2.73036
11.7976 14.6108 2.71142
11.8006 14.6145 2.69246
11.8101 14.6262 2.68645
11.813 14.6299 2.66751
11.8094 14.6255 2.63555
11.8124 14.6291 2.61657
11.8153 14.6328 2.59758
11.8183 14.6365 2.57858
11.8213 14.6401 2.55957
11.8242 14.6438 2.54056
11.8272 14.6475 2.52154
11.8236 14.6431 2.48927
11.8266 14.6467 2.47021
11.823 14.6423 2.43781
11.826 14.646 2.4187
11.829 14.6497 2.39959
11.832 14.6534 2.38047
11.8415 14.6651 2.37479
11.8444 14.6688 2.35569
11.8539 14.6805 2.35005
11.8504 14.6762 2.31745
11.8403 14.6637 2.27116
11.8368 14.6593 2.2383
11.8266 14.6467 2.19155
11.8296 14.6504 2.17226
11.8326 14.6542 2.15296
11.8356 14.6579 2.13365
11.832 14.6534 2.1004
11.835 14.6571 2.08105
11.838 14.6609 2.06169
11.841 14.6646 2.04232
11.8572 14.6846 2.05101
11.8602 14.6883 2.03169
11.8632 14.692 2.01236
11.8662 14.6957 1.99302
11.8692 14.6995 1.97367
11.8722 14.7032 1.95432
11.8489 14.6744 1.87797
11.8585 14.6863 1.87282
11.8747 14.7063 1.88197
11.8777 14.71 1.86256
11.8872 14.7218 1.85745
11.8967 14.7336 1.85235
11.9191 14.7613 1.87572
11.9221 14.7651 1.85642
11.9252 14.7688 1.83712
11.9346 14.7805 1.83207
11.9504 14.8 1.84124
11.9597 14.8116 1.83621
11.9754 14.831 1.84533
11.9784 14.8347 1.82617
11.994 14.854 1.8353
11.997 14.8577 1.81618
11.9811 14.838 1.75438
11.9904 14.8496 1.74945
12.0184 14.8843 1.78715
12.0276 14.8957 1.78222
12.043 14.9147 1.79141
12.046 14.9184 1.77239
12.0551 14.9297 1.76749
12.0642 14.941 1.76261
12.0549 14.9295 1.7153
12.0641 14.9408 1.71047
12.067 14.9445 1.69144
12.07 14.9482 1.67241
12.0852 14.9671 1.68185
12.0882 14.9708 1.66287
12.0912 14.9744 1.64387
12.0942 14.9781 1.62487
12.0972 14.9818 1.60586
12.1062 14.9931 1.60117
12.1092 14.9968 1.58217
12.1122 15.0004 1.56317
12.1333 15.0266 1.58716
12.1363 15.0303 1.56823
12.1393 15.0339 1.54929
12.1482 15.0451 1.54468
12.1392 15.0339 1.49699
12.1482 15.045 1.49244
12.1512 15.0487 1.47347
12.1661 15.0672 1.48336
12.175 15.0783 1.47884
12.184 15.0893 1.47433
12.1987 15.1076 1.48417
12.2017 15.1113 1.46534
12.1751 15.0783 1.37413
12.1781 15.082 1.35514
12.1988 15.1077 1.37986
12.2077 15.1187 1.37547
12.2399 15.1586 1.42873
12.2487 15.1695 1.42432
12.2516 15.1731 1.40558
12.2719 15.1982 1.4298
12.2806 15.209 1.4254
12.2835 15.2126 1.40675
12.3092 15.2444 1.44503
12.3178 15.2551 1.44064
12.332 15.2726 1.45039
12.3293 15.2693 1.41775
12.3434 15.2868 1.42754
12.3464 15.2904 1.40907
12.366 15.3147 1.43293
12.3689 15.3183 1.41453
12.3883 15.3424 1.43829
12.3913 15.3461 1.41995
12.416 15.3767 1.45753
12.4243 15.387 1.4532
12.4326 15.3973 1.44888
12.4409 15.4075 1.44457
12.4545 15.4244 1.45412
12.4627 15.4346 1.44982
12.471 15.4448 1.44553
12.4739 15.4483 1.42743
12.4821 15.4585 1.42317
12.485 15.4621 1.40508
12.4826 15.4591 1.37308
12.4855 15.4627 1.35495
12.5042 15.4859 1.37856
12.5071 15.4895 1.3605
12.5152 15.4996 1.35632
12.5181 15.5032 1.33827
12.521 15.5068 1.32021
12.5187 15.5039 1.28818
12.5268 15.514 1.28408
12.5245 15.5111 1.25198
12.543 15.534 1.27591
12.5459 15.5376 1.25787
12.5489 15.5412 1.23983
12.5518 15.5448 1.22178
12.5547 15.5484 1.20372
12.5524 15.5456 1.17156
12.5553 15.5492 1.15346
12.553 15.5464 1.12117
12.7766 15.8232 1.70857
12.7793 15.8267 1.69152
12.7821 15.8301 1.67447
12.7895 15.8393 1.67019
12.7923 15.8428 1.65315
12.966 16.0578 0.634607
12.9688 16.0613 0.617243
12.9761 16.0703 0.614047
12.9789 16.0739 0.596695
12.9818 16.0774 0.579337
12.9846 16.0809 0.561973
12.9875 16.0844 0.544604
12.9903 16.088 0.527229
12.9932 16.0915 0.509848
12.996 16.095 0.492461
12.9989 16.0986 0.475068
13.0061 16.1075 0.472022
13.009 16.1111 0.454641
13.0118 16.1146 0.437255
13.0147 16.1181 0.419863
13.0219 16.1271 0.416877
13.0248 16.1306 0.399497
13.032 16.1395 0.396535
13.0348 16.1431 0.379167
13.0377 16.1466 0.361793
13.0449 16.1555 0.358874
13.0477 16.159 0.341512
13.0549 16.1679 0.338616
13.0577 16.1715 0.321267
13.0606 16.175 0.303912
13.0634 16.1785 0.286551
13.0663 16.182 0.269184
13.0692 16.1856 0.251811
13.0763 16.1944 0.249011
13.0792 16.198 0.23165
13.0863 16.2068 0.228874
13.0891 16.2103 0.211526
13.0962 16.2191 0.208773
13.0991 16.2227 0.191437
13.1062 16.2315 0.188708
13.109 16.235 0.171384
13.1119 16.2385 0.154054
13.1148 16.2421 0.136718
13.1218 16.2508 0.134048
13.1247 16.2543 0.116725
13.1275 16.2579 0.0993951
13.1262 16.2562 0.0673169
13.1332 16.265 0.0647188
10.0826 13.6324 9.11833
10.0777 13.6258 9.09732
10.0802 13.6291 9.08027
10.0827 13.6325 9.06321
10.0778 13.6259 9.04208
10.0655 13.6092 9.01677
10.068 13.6126 8.99963
10.1 13.6559 8.99905
10.1245 13.6889 8.99438
10.1342 13.7021 8.98151
10.144 13.7153 8.96867
10.1464 13.7187 8.9517
10.1634 13.7416 8.94307
10.1659 13.7449 8.92614
10.1683 13.7483 8.9092
10.1708 13.7516 8.89225
10.2091 13.8033 8.89643
10.2186 13.8163 8.8838
10.1998 13.7908 8.85423
10.2023 13.7941 8.83733
10.2047 13.7975 8.82042
10.2072 13.8008 8.80351
10.2239 13.8234 8.79528
10.2264 13.8268 8.7784
10.236 13.8397 8.76589
10.2384 13.8431 8.74902
10.2338 13.8368 8.72773
10.2434 13.8498 8.71526
10.2459 13.8531 8.69838
10.2554 13.866 8.68596
10.2509 13.8598 8.66459
10.2533 13.8632 8.64768
10.2629 13.8761 8.63532
10.2654 13.8794 8.61842
10.2678 13.8828 8.60152
10.2703 13.8862 8.58462
10.2728 13.8895 8.56771
10.2753 13.8929 8.55079
10.2778 13.8963 8.53387
10.2803 13.8996 8.51694
10.2828 13.903 8.5
10.2853 13.9064 8.48306
10.2807 13.9002 8.46134
10.2832 13.9036 8.44437
10.2857 13.907 8.42738
10.2882 13.9104 8.4104
10.3047 13.9327 8.40311
10.3072 13.9361 8.38616
10.3097 13.9394 8.3692
10.3122 13.9428 8.35223
10.3147 13.9462 8.33526
10.3172 13.9496 8.31828
10.3127 13.9435 8.29631
10.3152 13.9469 8.2793
10.3177 13.9503 8.26228
10.3272 13.9631 8.25031
10.3297 13.9665 8.2333
10.3322 13.9699 8.21629
10.3347 13.9733 8.19927
10.3373 13.9767 8.18224
10.3398 13.98 8.16521
10.3423 13.9834 8.14817
10.3517 13.9962 8.13633
10.3542 13.9996 8.1193
10.3498 13.9936 8.09702
10.3523 13.997 8.07995
10.3618 14.0098 8.06818
10.3643 14.0132 8.05113
10.3668 14.0166 8.03407
10.3693 14.02 8.01701
10.3649 14.014 7.99455
10.3674 14.0174 7.97745
10.3699 14.0208 7.96034
10.3724 14.0242 7.94323
10.375 14.0276 7.92612
10.3775 14.031 7.90899
10.38 14.0344 7.89186
10.3825 14.0379 7.87473
10.3781 14.0319 7.85199
10.3806 14.0353 7.83482
10.3901 14.0481 7.82328
10.3926 14.0515 7.80612
10.402 14.0643 7.79463
10.4046 14.0677 7.77748
10.4071 14.0711 7.76032
10.4096 14.0745 7.74316
10.4122 14.0779 7.726
10.4147 14.0813 7.70882
10.4172 14.0848 7.69164
10.4197 14.0882 7.67446
10.4154 14.0823 7.65141
10.4179 14.0857 7.63419
10.4273 14.0985 7.62286
10.4299 14.1019 7.60565
10.4324 14.1053 7.58844
10.4281 14.0994 7.56524
10.4375 14.1122 7.55399
10.44 14.1156 7.53675
10.4357 14.1097 7.51347
10.4382 14.1132 7.4962
10.4408 14.1166 7.47892
10.4433 14.1201 7.46164
10.4459 14.1235 7.44435
10.4484 14.1269 7.42705
10.451 14.1304 7.40975
10.4535 14.1338 7.39244
10.4561 14.1373 7.37513
10.4586 14.1407 7.35781
10.468 14.1534 7.34677
10.4706 14.1569 7.32946
10.4799 14.1696 7.31846
10.4825 14.173 7.30116
10.485 14.1765 7.28386
10.4876 14.1799 7.26655
10.4969 14.1926 7.25563
10.4995 14.196 7.23833
10.4952 14.1903 7.21459
10.4978 14.1937 7.19725
10.5003 14.1972 7.17991
10.5029 14.2006 7.16257
10.5055 14.2041 7.14521
10.508 14.2075 7.12786
10.5038 14.2018 7.10389
10.5063 14.2053 7.08649
10.5089 14.2087 7.06909
10.5115 14.2122 7.05168
10.514 14.2157 7.03427
10.5166 14.2191 7.01685
10.5192 14.2226 6.99942
10.5217 14.2261 6.98199
10.5243 14.2295 6.96455
10.5269 14.233 6.94711
10.5294 14.2365 6.92966
10.532 14.24 6.9122
10.5346 14.2434 6.89474
10.5371 14.2469 6.87727
10.5397 14.2504 6.85979
10.5423 14.2539 6.84231
10.5449 14.2574 6.82482
10.5474 14.2608 6.80732
10.5568 14.2735 6.79686
10.5594 14.277 6.77937
10.5619 14.2805 6.76188
10.5645 14.2839 6.74439
10.5603 14.2783 6.71975
10.5629 14.2818 6.70222
10.5655 14.2853 6.68468
10.5681 14.2888 6.66713
10.5707 14.2923 6.64958
10.5733 14.2958 6.63202
10.5759 14.2993 6.61446
10.5784 14.3028 6.59689
10.581 14.3063 6.57931
10.5836 14.3098 6.56173
10.5862 14.3133 6.54414
10.5888 14.3168 6.52654
10.5914 14.3203 6.50894
10.594 14.3238 6.49133
10.5898 14.3182 6.46622
10.5924 14.3217 6.44857
10.595 14.3252 6.43092
10.5976 14.3287 6.41326
10.6002 14.3322 6.3956
10.6028 14.3357 6.37793
10.6122 14.3483 6.36789
10.6148 14.3519 6.35023
10.6241 14.3645 6.34024
10.6267 14.368 6.32259
10.6293 14.3715 6.30494
10.6319 14.375 6.28728
10.6345 14.3785 6.26961
10.6371 14.382 6.25194
10.6397 14.3856 6.23426
10.6423 14.3891 6.21658
10.6449 14.3926 6.19888
10.6475 14.3961 6.18118
10.6501 14.3997 6.16348
10.6527 14.4032 6.14577
10.6553 14.4067 6.12805
10.658 14.4103 6.11033
10.6672 14.4228 6.1006
10.6698 14.4263 6.08289
10.6724 14.4299 6.06517
10.6751 14.4334 6.04744
10.6777 14.4369 6.02971
10.6803 14.4405 6.01197
10.6829 14.444 5.99423
10.6855 14.4475 5.97648
10.6881 14.4511 5.95872
10.6908 14.4546 5.94096
10.6934 14.4582 5.92319
10.696 14.4617 5.90541
10.692 14.4563 5.87933
10.6946 14.4598 5.86152
10.6972 14.4634 5.84369
10.6999 14.4669 5.82587
10.7025 14.4705 5.80803
10.7051 14.474 5.79019
10.7078 14.4776 5.77235
10.7104 14.4811 5.7545
10.713 14.4847 5.73664
10.7156 14.4883 5.71877
10.7183 14.4918 5.7009
10.7209 14.4954 5.68302
10.7236 14.499 5.66513
10.7262 14.5025 5.64724
10.7288 14.5061 5.62934
10.7315 14.5097 5.61144
10.7341 14.5132 5.59353
10.7367 14.5168 5.57561
10.746 14.5293 5.56644
10.7486 14.5328 5.54854
10.7513 14.5364 5.53063
10.7539 14.54 5.51271
10.7565 14.5436 5.49478
10.7592 14.5471 5.47685
10.7553 14.5418 5.45001
10.7579 14.5454 5.43204
10.7605 14.549 5.41406
10.7632 14.5526 5.39608
10.7658 14.5561 5.37809
10.7685 14.5597 5.36009
10.7777 14.5722 5.35115
10.7804 14.5758 5.33317
10.783 14.5794 5.31518
10.7857 14.5829 5.29718
10.7883 14.5865 5.27918
10.791 14.5901 5.26117
10.7936 14.5937 5.24315
10.7963 14.5973 5.22513
10.799 14.6009 5.2071
10.8016 14.6045 5.18907
10.8043 14.6081 5.17102
10.8069 14.6117 5.15298
10.8096 14.6153 5.13492
10.8123 14.6189 5.11686
10.8084 14.6137 5.08936
10.8111 14.6173 5.07126
10.8137 14.6209 5.05316
10.8164 14.6245 5.03504
10.8191 14.6281 5.01692
10.8217 14.6317 4.99879
10.8309 14.6441 4.99024
10.8336 14.6477 4.97213
10.8363 14.6514 4.954
10.8389 14.655 4.93588
10.8416 14.6586 4.91774
10.8443 14.6622 4.8996
10.847 14.6658 4.88145
10.8496 14.6694 4.8633
10.8523 14.6731 4.84514
10.855 14.6767 4.82697
10.8577 14.6803 4.80879
10.8539 14.6751 4.78074
10.863 14.6875 4.77243
10.8657 14.6912 4.75423
10.8684 14.6948 4.73603
10.8711 14.6984 4.71782
10.8738 14.7021 4.69961
10.8765 14.7057 4.68139
10.8856 14.7181 4.67319
10.8947 14.7304 4.665
10.891 14.7253 4.63676
10.8937 14.729 4.61854
10.8963 14.7326 4.60031
10.8926 14.7275 4.57192
10.8953 14.7312 4.55365
10.898 14.7348 4.53538
10.9007 14.7384 4.5171
10.9034 14.7421 4.49881
10.9061 14.7457 4.48052
10.9088 14.7494 4.46222
10.9115 14.753 4.44391
10.9142 14.7567 4.42559
10.9233 14.769 4.41767
10.926 14.7727 4.39937
10.9287 14.7763 4.38106
10.9314 14.78 4.36274
10.9277 14.775 4.33392
10.9304 14.7786 4.31556
10.9331 14.7823 4.2972
10.9358 14.7859 4.27883
10.9385 14.7896 4.26046
10.9412 14.7933 4.24208
10.9439 14.7969 4.22369
10.9466 14.8006 4.20529
10.9494 14.8043 4.18689
10.9521 14.8079 4.16848
10.9548 14.8116 4.15006
10.9575 14.8153 4.13164
10.9602 14.819 4.11321
10.9629 14.8226 4.09478
10.9593 14.8177 4.06543
10.9684 14.83 4.05788
10.9647 14.825 4.02847
10.9674 14.8287 4.00998
10.9702 14.8324 3.99148
10.9793 14.8447 3.98402
10.982 14.8484 3.96553
10.9847 14.8521 3.94704
10.9874 14.8558 3.92855
10.9902 14.8594 3.91004
10.9929 14.8631 3.89153
10.9956 14.8668 3.87301
10.9984 14.8705 3.85449
11.0011 14.8742 3.83596
11.0038 14.8779 3.81742
11.0066 14.8816 3.79887
11.0093 14.8853 3.78032
11.012 14.889 3.76176
11.0148 14.8927 3.7432
11.0175 14.8964 3.72462
11.0203 14.9001 3.70604
11.023 14.9038 3.68746
11.0257 14.9075 3.66887
11.0285 14.9112 3.65027
11.0312 14.9149 3.63166
11.034 14.9187 3.61304
11.043 14.9309 3.60601
11.0458 14.9346 3.58741
11.0422 14.9298 3.55716
11.045 14.9335 3.53852
11.0477 14.9372 3.51987
11.0505 14.9409 3.50122
11.0595 14.9532 3.4943
11.0622 14.9569 3.47566
11.0587 14.9521 3.44521
11.0615 14.9558 3.42653
11.0642 14.9596 3.40784
11.067 14.9633 3.38914
11.0697 14.967 3.37044
11.0725 14.9707 3.35173
11.069 14.966 3.32101
11.078 14.9782 3.31429
11.0808 14.9819 3.29555
11.0835 14.9857 3.27682
11.0863 14.9894 3.25807
11.0891 14.9931 3.23932
11.0918 14.9969 3.22056
11.0946 15.0006 3.20179
11.0974 15.0044 3.18302
11.1001 15.0081 3.16424
11.1029 15.0119 3.14545
11.1119 15.024 3.13893
11.1147 15.0278 3.12016
11.1175 15.0315 3.10138
11.1202 15.0353 3.08259
11.1168 15.0306 3.05141
11.1195 15.0344 3.03258
11.1223 15.0381 3.01375
11.1251 15.0419 2.9949
11.1279 15.0456 2.97605
11.1307 15.0494 2.9572
11.1334 15.0531 2.93833
11.13 15.0485 2.90685
11.1328 15.0522 2.88794
11.1356 15.056 2.86903
11.1383 15.0598 2.85011
11.1411 15.0636 2.83118
11.1439 15.0673 2.81224
11.1467 15.0711 2.7933
11.1495 15.0749 2.77435
11.1585 15.0871 2.76824
11.1613 15.0908 2.74931
11.1641 15.0946 2.73036
11.1669 15.0984 2.71142
11.1697 15.1022 2.69246
11.1787 15.1143 2.68645
11.1815 15.1181 2.66751
11.1781 15.1135 2.63555
11.1809 15.1173 2.61657
11.1837 15.1211 2.59758
11.1865 15.1249 2.57858
11.1893 15.1286 2.55957
11.1921 15.1324 2.54056
11.1949 15.1362 2.52154
11.1915 15.1317 2.48927
11.1943 15.1355 2.47021
11.1909 15.1309 2.43781
11.1938 15.1347 2.4187
11.1966 15.1385 2.39959
11.1994 15.1423 2.38047
11.2084 15.1545 2.37479
11.2112 15.1583 2.35569
11.2202 15.1704 2.35005
11.223 15.1742 2.33095
11.2011 15.1446 2.25752
11.2039 15.1485 2.2383
11.1943 15.1355 2.19155
11.1972 15.1393 2.17226
11.2 15.1431 2.15296
11.2028 15.147 2.13365
11.1994 15.1424 2.1004
11.2023 15.1462 2.08105
11.2051 15.1501 2.06169
11.208 15.1539 2.04232
11.2232 15.1746 2.05101
11.2261 15.1784 2.03169
11.2289 15.1823 2.01236
11.2379 15.1945 2.00708
11.2408 15.1983 1.98776
11.2436 15.2021 1.96844
11.2154 15.164 1.87797
11.2308 15.1847 1.88712
11.2398 15.197 1.88197
11.2489 15.2092 1.87684
11.2455 15.2047 1.84314
11.2607 15.2252 1.85235
11.2758 15.2457 1.86151
11.2848 15.2578 1.85642
11.2876 15.2616 1.83712
11.2965 15.2737 1.83207
11.3115 15.2939 1.84124
11.3203 15.3058 1.83621
11.3352 15.3259 1.84533
11.338 15.3297 1.82617
11.3527 15.3497 1.8353
11.3615 15.3615 1.8303
11.3465 15.3412 1.76864
11.3553 15.3531 1.76371
11.3818 15.3889 1.80128
11.3905 15.4007 1.79634
11.3992 15.4124 1.79141
11.402 15.4162 1.77239
11.4222 15.4436 1.79563
11.4251 15.4474 1.77669
11.4104 15.4277 1.7153
11.4133 15.4315 1.69625
11.4161 15.4353 1.6772
11.4247 15.447 1.67241
11.4391 15.4665 1.68185
11.442 15.4703 1.66287
11.4448 15.4741 1.64387
11.4476 15.4779 1.62487
11.4504 15.4818 1.60586
11.459 15.4933 1.60117
11.4561 15.4894 1.56782
11.4647 15.501 1.56317
11.4846 15.528 1.58716
11.4874 15.5318 1.56823
11.4903 15.5356 1.54929
11.4931 15.5394 1.53035
11.4902 15.5355 1.49699
11.493 15.5394 1.478
11.5016 15.5509 1.47347
11.5157 15.57 1.48336
11.5241 15.5814 1.47884
11.5326 15.5928 1.47433
11.5466 15.6117 1.48417
11.5494 15.6155 1.46534
11.5354 15.5967 1.40319
11.5382 15.6005 1.38426
11.5522 15.6194 1.39435
11.5606 15.6307 1.38995
11.5855 15.6644 1.42873
11.5938 15.6756 1.42432
11.5912 15.672 1.39121
11.5995 15.6832 1.38683
11.6132 15.7018 1.39682
11.6322 15.7275 1.42102
11.6458 15.7459 1.43085
11.6486 15.7496 1.41227
11.6674 15.775 1.43627
11.6755 15.786 1.4319
11.6941 15.8111 1.4557
11.6968 15.8149 1.43728
11.6944 15.8115 1.40474
11.6971 15.8153 1.38628
11.726 15.8544 1.43829
11.7288 15.8581 1.41995
11.7522 15.8897 1.45753
11.7652 15.9073 1.46708
11.7679 15.911 1.44888
11.7758 15.9216 1.44457
11.7937 15.9459 1.46794
11.8015 15.9564 1.46363
11.8093 15.9669 1.45933
11.812 15.9706 1.44125
11.8247 15.9878 1.45075
11.8225 15.9848 1.41891
11.8352 16.0019 1.42846
11.833 15.9989 1.39662
11.8357 16.0026 1.37856
11.8384 16.0064 1.3605
11.8461 16.0168 1.35632
11.8489 16.0205 1.33827
11.8516 16.0242 1.32021
11.8494 16.0212 1.28818
11.8571 16.0316 1.28408
11.8549 16.0287 1.25198
11.8725 16.0524 1.27591
11.8752 16.0561 1.25787
11.878 16.0598 1.23983
11.8758 16.0569 1.20773
11.8786 16.0606 1.18964
11.8764 16.0577 1.15741
11.8792 16.0614 1.13929
11.877 16.0585 1.10694
12.0935 16.3512 1.70857
12.0961 16.3548 1.69152
12.0988 16.3583 1.67447
12.1058 16.3678 1.67019
12.1084 16.3714 1.65315
12.2728 16.5936 0.634607
12.2797 16.6029 0.631393
12.2824 16.6066 0.614047
12.2851 16.6102 0.596695
12.2878 16.6139 0.579337
12.2905 16.6175 0.561973
12.2932 16.6212 0.544604
12.2958 16.6248 0.527229
12.2985 16.6284 0.509848
12.3012 16.6321 0.492461
12.3039 16.6357 0.475068
12.3108 16.645 0.472022
12.3135 16.6487 0.454641
12.3162 16.6523 0.437255
12.3189 16.656 0.419863
12.3257 16.6652 0.416877
12.3284 16.6689 0.399497
12.3353 16.6781 0.396535
12.338 16.6817 0.379167
12.3407 16.6854 0.361793
12.3475 16.6946 0.358874
12.3502 16.6982 0.341512
12.3569 16.7074 0.338616
12.3596 16.7111 0.321267
12.3623 16.7147 0.303912
12.365 16.7184 0.286551
12.3677 16.722 0.269184
12.3704 16.7257 0.251811
12.3772 16.7348 0.249011
12.3799 16.7385 0.23165
12.3826 16.7421 0.214284
12.3894 16.7512 0.211526
12.3961 16.7603 0.208773
12.3988 16.764 0.191437
12.4055 16.7731 0.188708
12.4082 16.7767 0.171384
12.4109 16.7804 0.154054
12.4136 16.784 0.136718
12.4203 16.7931 0.134048
12.423 16.7967 0.116725
12.4257 16.8004 0.0993951
12.4244 16.7986 0.0673169
12.4271 16.8023 0.0499521
9.49496 14.048 9.11833
9.49036 14.0412 9.09732
9.4927 14.0447 9.08027
9.48809 14.0378 9.05917
9.47648 14.0206 9.03391
9.47883 14.0241 9.01677
9.48816 14.0379 9.00377
9.51135 14.0722 8.99905
9.52061 14.0859 8.98613
9.53671 14.1098 8.97738
9.55955 14.1436 8.9728
9.56189 14.147 8.95585
9.56422 14.1505 8.9389
9.57335 14.164 8.92614
9.57569 14.1674 8.9092
9.57803 14.1709 8.89225
9.60062 14.2043 8.88801
9.60967 14.2177 8.87536
9.59181 14.1913 8.84568
9.60763 14.2147 8.83733
9.60996 14.2181 8.82042
9.61901 14.2315 8.80784
9.62803 14.2449 8.79528
9.63037 14.2483 8.7784
9.6327 14.2518 8.76151
9.64171 14.2651 8.74902
9.63738 14.2587 8.72773
9.63972 14.2622 8.71082
9.64872 14.2755 8.69838
9.65106 14.2789 8.68149
9.6534 14.2824 8.66459
9.65574 14.2859 8.64768
9.65808 14.2893 8.63077
9.66042 14.2928 8.61386
9.66939 14.3061 8.60152
9.67174 14.3095 8.58462
9.67408 14.313 8.56771
9.67642 14.3165 8.55079
9.67877 14.3199 8.53387
9.68111 14.3234 8.51694
9.68346 14.3269 8.5
9.68581 14.3304 8.48306
9.68154 14.324 8.46134
9.68389 14.3275 8.44437
9.68624 14.331 8.42738
9.68859 14.3345 8.4104
9.70414 14.3575 8.40311
9.70649 14.361 8.38616
9.70226 14.3547 8.3643
9.70461 14.3582 8.34731
9.70697 14.3617 8.33032
9.70932 14.3651 8.31332
9.72482 14.3881 8.30627
9.72717 14.3916 8.28931
9.72953 14.395 8.27233
9.73188 14.3985 8.25535
9.73424 14.402 8.23837
9.73004 14.3958 8.21629
9.7324 14.3993 8.19927
9.73476 14.4028 8.18224
9.73712 14.4063 8.16521
9.73948 14.4098 8.14817
9.74184 14.4133 8.13112
9.75075 14.4264 8.1193
9.74657 14.4203 8.09702
9.74894 14.4238 8.07995
9.75784 14.4369 8.06818
9.7602 14.4404 8.05113
9.76257 14.4439 8.03407
9.76494 14.4474 8.01701
9.76078 14.4413 7.99455
9.76315 14.4448 7.97745
9.76552 14.4483 7.96034
9.76789 14.4518 7.94323
9.77026 14.4553 7.92612
9.77263 14.4588 7.90899
9.77501 14.4623 7.89186
9.77738 14.4658 7.87473
9.78627 14.479 7.86316
9.78865 14.4825 7.84604
9.79102 14.486 7.82891
9.7934 14.4895 7.81177
9.79578 14.4931 7.79463
9.79815 14.4966 7.77748
9.80053 14.5001 7.76032
9.80291 14.5036 7.74316
9.80529 14.5071 7.726
9.80768 14.5107 7.70882
9.81006 14.5142 7.69164
9.81244 14.5177 7.67446
9.80834 14.5116 7.65141
9.81073 14.5152 7.63419
9.8196 14.5283 7.62286
9.82198 14.5318 7.60565
9.82437 14.5354 7.58844
9.82028 14.5293 7.56524
9.82267 14.5329 7.54799
9.82507 14.5364 7.53073
9.82097 14.5303 7.5074
9.82985 14.5435 7.4962
9.83225 14.547 7.47892
9.83464 14.5506 7.46164
9.83704 14.5541 7.44435
9.83944 14.5577 7.42705
9.84183 14.5612 7.40975
9.84423 14.5648 7.39244
9.84663 14.5683 7.37513
9.84903 14.5719 7.35781
9.85144 14.5754 7.34049
9.85384 14.579 7.32315
9.85624 14.5825 7.30581
9.86509 14.5956 7.29483
9.8675 14.5992 7.2775
9.8699 14.6027 7.26017
9.8723 14.6063 7.24283
9.87471 14.6098 7.22548
9.88354 14.6229 7.21459
9.88594 14.6265 7.19725
9.88193 14.6205 7.17341
9.88434 14.6241 7.15604
9.88675 14.6277 7.13866
9.88916 14.6312 7.12128
9.89157 14.6348 7.10389
9.89399 14.6384 7.08649
9.8964 14.6419 7.06909
9.89881 14.6455 7.05168
9.89481 14.6396 7.02756
9.89723 14.6432 7.01011
9.90606 14.6562 6.99942
9.90848 14.6598 6.98199
9.9109 14.6634 6.96455
9.91332 14.667 6.94711
9.91574 14.6705 6.92966
9.91816 14.6741 6.9122
9.92058 14.6777 6.89474
9.923 14.6813 6.87727
9.92543 14.6849 6.85979
9.92785 14.6885 6.84231
9.93028 14.6921 6.82482
9.9327 14.6956 6.80732
9.9415 14.7087 6.79686
9.94393 14.7123 6.77937
9.94635 14.7158 6.76188
9.94878 14.7194 6.74439
9.95121 14.723 6.72689
